-0.1724162 -0.058120277 -0.21076272 
-0.19254953 -0.061630916 -0.2140526 
-0.25762066 -0.011932026 -0.20607482 
-0.22618067 -0.07614737 -0.22218591 
-0.25338516 -0.07081748 -0.2235602 
-0.30264074 -0.038479645 -0.2191316 
-0.28346846 -0.08902204 -0.23242673 
-0.26952392 -0.13379969 -0.24454066 
-0.26751792 -0.16431175 -0.25362167 
-0.25837263 -0.20410852 -0.26474622 
-0.31076807 -0.16654491 -0.25907063 
-0.2333706 -0.2937469 -0.28931773 
-0.20494573 -0.35992998 -0.30636114 
-0.16229698 -0.08902931 -0.23939861 
-0.22613598 -0.041212987 -0.231483 
-0.1721518 -0.13237634 -0.25382847 
-0.2141615 -0.109871894 -0.2513845 
-0.27402765 -0.06519712 -0.24401265 
-0.2692085 -0.09841527 -0.25374562 
-0.2892287 -0.10146831 -0.25683194 
-0.34920943 -0.05481525 -0.24886197 
-0.27286837 -0.17770126 -0.2786006 
-0.33214173 -0.13139667 -0.27066237 
-0.2655104 -0.24434452 -0.29837462 
-0.27411997 -0.26245824 -0.3048856 
-0.18665358 -0.07972087 -0.25937474 
-0.24152976 -0.042033337 -0.25331327 
-0.2775068 -0.026093435 -0.25207698 
-0.25705913 -0.07771628 -0.26606864 
-0.24003524 -0.12587257 -0.27933395 
-0.35459414 -0.013266616 -0.2560867 
-0.36658153 -0.025416292 -0.26112634 
-0.34611663 -0.078082755 -0.27544206 
-0.41474468 -0.019327937 -0.26423278 
-0.35123163 -0.12713258 -0.29128805 
-0.3602085 -0.14378475 -0.29742044 
-0.26203197 -0.009901167 -0.26517963 
-0.242297 -0.060228232 -0.2790881 
-0.25707594 -0.069719866 -0.28357652 
-0.2762095 -0.073897526 -0.28682533 
-0.362868 0.0046661287 -0.27074432 
-0.27367023 -0.13224013 -0.30499962 
-0.36145484 -0.051022675 -0.2881938 
-0.43245584 0.010728578 -0.27584514 
-0.45419496 0.011356014 -0.2778387 
-0.325536 -0.17995183 -0.32530084 
-0.39771125 -0.115602784 -0.31224993 
-0.24430421 -0.04990009 -0.29601923 
-0.30659723 -0.002349476 -0.28690732 
-0.30556965 -0.03040261 -0.2957722 
-0.34140798 -0.013755393 -0.29395252 
-0.36303568 -0.014120657 -0.29618168 
-0.40101993 0.0060085766 -0.29345885 
-0.40064204 -0.021367962 -0.30217093 
-0.42663243 -0.015719153 -0.30290425 
-0.43129787 -0.036955733 -0.31014678 
-0.41731936 -0.082337596 -0.3232847 
-0.32229182 0.024229208 -0.29943982 
-0.30269834 -0.026003253 -0.31382644 
-0.30934095 -0.044973157 -0.32058674 
-0.32189843 -0.056815065 -0.32560182 
-0.39521232 0.0065820264 -0.31203723 
-0.358186 -0.066575244 -0.332187 
-0.41868427 -0.01791752 -0.32217577 
-0.42259482 -0.040149096 -0.3297322 
-0.420815 -0.06987372 -0.3391731 
-0.32270977 0.005948416 -0.32496965 
-0.32959074 -0.012479167 -0.3316235 
-0.32069305 -0.05036056 -0.34319636 
-0.35213378 -0.038869716 -0.34231192 
-0.3450983 -0.074933626 -0.35346064 
-0.3978018 -0.036339283 -0.3456571 
-0.3979977 -0.063454896 -0.35454082 
-0.33250588 -0.028008137 -0.35666353 
-0.3375489 -0.048955012 -0.36403468 
-0.4609745 0.07708324 -0.3332462 
-0.3910255 -0.03695737 -0.36478463 
-0.37475377 -0.02222413 -0.3780401 
-0.3733171 -0.051220775 -0.3876132 
0.1056633 0.627693 0.10930876 
0.15062326 0.6816926 0.21070708 
0.14676183 0.6389243 0.16735467 
0.14044583 0.5899977 0.115549795 
0.17480157 0.6250393 0.18737961 
0.18266375 0.6051552 0.17846604 
0.18058088 0.56336826 0.13807558 
0.1928801 0.5522475 0.14228894 
0.21603186 0.56550187 0.18128158 
0.217091 0.5290879 0.14943029 
0.21220054 0.47790194 0.09723211 
0.23978218 0.5022169 0.15143064 
0.26209193 0.515098 0.18910407 
0.28736043 0.5361234 0.23762114 
0.2743826 0.46259007 0.15570481 
0.30360523 0.49431288 0.21854405 
0.31524733 0.481968 0.22088024 
0.12465835 0.6785463 0.20877281 
0.12070017 0.63624513 0.1662078 
0.14387976 0.6475115 0.2030997 
0.1622857 0.64974606 0.226366 
0.15443577 0.5977549 0.17060275 
0.20607899 0.67031884 0.29542595 
0.17554379 0.5687461 0.1689284 
0.19819619 0.5805556 0.20569927 
0.21857817 0.58809197 0.23600975 
0.20518 0.5196263 0.15904148 
0.22945824 0.5361046 0.20188351 
0.24435869 0.53151834 0.21497464 
0.24042809 0.4820925 0.16604239 
0.2591236 0.48638314 0.19148977 
0.2830273 0.5041524 0.23505875 
0.27270755 0.43649325 0.16237046 
0.29433978 0.44895834 0.1985518 
0.2996872 0.41959244 0.17835285 
0.31442773 0.4146263 0.19091813 
0.3214945 0.38898298 0.17604855 
0.33122036 0.37015077 0.17036782 
0.33903354 0.34559274 0.15733516 
0.37914482 0.41376662 0.26489565 
0.37989625 0.36917415 0.22571237 
0.38774237 0.3445294 0.21263984 
0.39956194 0.33150497 0.21459374 
0.4013247 0.28690913 0.17657554 
0.4167669 0.28462195 0.19235739 
0.4258122 0.26182726 0.18233155 
0.43401983 0.23573337 0.16837505 
0.4656238 0.28869098 0.2524428 
0.46159306 0.22039954 0.18645051 
0.48498595 0.24716012 0.23750508 
0.48100755 0.17599647 0.1689936 
0.51055527 0.22691475 0.2488546 
0.5202034 0.20489678 0.24022278 
0.53387547 0.19805095 0.24986559 
0.54061353 0.16370581 0.22680083 
0.112605266 0.66855615 0.21686572 
0.110666774 0.6304086 0.18077321 
0.14442994 0.66273344 0.24816938 
0.14883603 0.6368117 0.23020351 
0.13967413 0.5823208 0.1713214 
0.15225519 0.5720502 0.17662118 
0.15816376 0.5475292 0.1616209 
0.19876271 0.59798354 0.25294846 
0.18645266 0.53349453 0.18158107 
0.21094495 0.5499709 0.2242804 
0.21216375 0.51409185 0.1938206 
0.22266848 0.49896726 0.19243087 
0.25589532 0.5376073 0.26481956 
0.2562165 0.49853557 0.23049635 
0.2478646 0.43709457 0.16637161 
0.26712528 0.44295606 0.19365023 
0.27361566 0.4168605 0.17791875 
0.2918985 0.42084107 0.20240663 
0.28930277 0.3701038 0.15438274 
0.34013668 0.46200365 0.29423928 
0.32892078 0.3872306 0.21499485 
0.34838068 0.39595625 0.24504483 
0.34830165 0.34960473 0.20379929 
0.3617671 0.34132236 0.21187797 
0.37033388 0.31858167 0.20150496 
0.38951156 0.32754847 0.23144566 
0.39920846 0.30798486 0.22518875 
0.40166408 0.26518297 0.18999977 
0.42782637 0.2975157 0.24869174 
0.42314056 0.23007141 0.18343836 
0.4312412 0.20322222 0.16888328 
0.45246544 0.22080886 0.20882294 
0.46121952 0.1958454 0.19669107 
0.47080106 0.17323336 0.18759528 
0.49882877 0.21786712 0.2593471 
0.49907136 0.16064551 0.20881867 
0.5034739 0.11726462 0.17534691 
0.51342076 0.09418443 0.1662542 
0.521898 0.064612955 0.14971365 
0.5579952 0.14820454 0.26530394 
0.560942 0.09622117 0.22252575 
0.573712 0.08478866 0.22701038 
0.59240574 0.09970042 0.2616749 
0.59866554 0.059205562 0.23289426 
0.61016166 0.041688636 0.23051658 
0.6057167 -0.05290029 0.1414379 
0.6217834 -0.05063387 0.16186392 
0.64140743 -0.029502135 0.20311736 
0.6648154 0.013292235 0.2679414 
0.09277062 0.6436255 0.20304509 
0.1068117 0.63661224 0.21285737 
0.09819889 0.5847184 0.15751328 
0.12739749 0.60780835 0.21098617 
0.1243298 0.5657871 0.17061374 
0.13074963 0.5425164 0.15748909 
0.17151354 0.591728 0.24704257 
0.17277624 0.5577059 0.21861598 
0.16874385 0.51125085 0.17325482 
0.20906115 0.5626324 0.26420498 
0.20718327 0.5202794 0.22489454 
0.23721974 0.5506187 0.28568333 
0.22645077 0.48636892 0.21704185 
0.24162413 0.48234984 0.23076996 
0.23385534 0.4226235 0.1695108 
0.24656452 0.41196546 0.17460924 
0.2677425 0.42273125 0.20814337 
0.2859735 0.42671046 0.23236917 
0.3088415 0.44340616 0.27303016 
0.30667782 0.39423946 0.22741401 
0.3386774 0.4366448 0.3010262 
0.31120455 0.31602755 0.16391234 
0.35687655 0.39809322 0.28788483 
0.3657265 0.37758735 0.27995056 
0.36432126 0.3265241 0.23353226 
0.37436637 0.3082046 0.2288763 
0.3764055 0.26507625 0.19333987 
0.39598405 0.27542216 0.22468638 
0.4108945 0.27177033 0.2384379 
0.40848795 0.21205266 0.18328454 
0.4330344 0.23986831 0.23561473 
0.44586167 0.22956234 0.2411565 
0.44433373 0.16948056 0.18668279 
0.4579243 0.16084523 0.19455904 
0.48912704 0.21617079 0.27860555 
0.52111346 0.27741277 0.3687364 
0.50540376 0.16108996 0.24876954 
0.5123542 0.12777722 0.227434 
0.52128994 0.10129809 0.21435441 
0.54236984 0.123481296 0.25779846 
0.5492094 0.08795509 0.23439398 
0.5578008 0.058696885 0.2184835 
0.57007354 0.044642873 0.22010478 
0.58276635 0.03233067 0.22373265 
0.6071917 0.07401578 0.28809893 
0.6063265 -0.0010947151 0.2211876 
0.6177384 -0.020038363 0.21753813 
0.6254246 -0.057998206 0.1929604 
0.62644345 -0.13166696 0.12945716 
0.10091957 0.67237157 0.26786458 
0.087808944 0.61321664 0.2017398 
0.114518285 0.6310519 0.24735749 
0.109551325 0.58628666 0.20290898 
0.123327665 0.5786068 0.21179187 
0.118665785 0.53280616 0.16678922 
0.13164596 0.5230124 0.17293942 
0.1571228 0.5400384 0.216464 
0.17952837 0.5513179 0.2515363 
0.15262747 0.4540364 0.13676623 
0.16548055 0.443421 0.14206001 
0.1989812 0.480196 0.21177594 
0.21148847 0.46963283 0.21672478 
0.23393512 0.4826936 0.2533891 
0.2364375 0.44837344 0.22643316 
0.25110945 0.44316235 0.23846899 
0.25840348 0.4196621 0.22630894 
0.25783965 0.37564224 0.18747623 
0.26596618 0.3529862 0.17698829 
0.29381004 0.38209903 0.23367193 
0.3094411 0.37977856 0.24929826 
0.30906746 0.33379275 0.20897433 
0.31379506 0.30074844 0.18563661 
0.36647105 0.40376267 0.33446857 
0.36715367 0.3598729 0.29715532 
0.36052176 0.2929499 0.23160145 
0.36998498 0.27251866 0.22455245 
0.37206766 0.2289035 0.18905748 
0.39484885 0.2492073 0.2323842 
0.4061516 0.23387761 0.23183773 
0.40321577 0.17159323 0.17447993 
0.41258836 0.14842682 0.16495524 
0.43776914 0.17891766 0.21982934 
0.45096445 0.16926292 0.2263429 
0.4909185 0.2554191 0.34619012 
0.4797532 0.15892321 0.24985953 
0.48905748 0.1351161 0.23970185 
0.50351584 0.1304469 0.2519668 
0.51327187 0.10766491 0.2432085 
0.516413 0.057815973 0.20349886 
0.5552418 0.15258858 0.3295528 
0.54007375 0.02550104 0.20216045 
0.5699238 0.08662446 0.28888398 
0.5889159 0.103436835 0.3249051 
0.58826584 0.03268823 0.26278225 
0.5914554 -0.023331834 0.21777259 
0.60412586 -0.03648941 0.22065438 
0.63278013 0.028594878 0.30946538 
0.6410326 -0.0048552467 0.28975335 
0.09720519 0.67813206 0.2986107 
0.06986083 0.59204555 0.1941434 
0.091015965 0.5986007 0.22345765 
0.11873407 0.6187969 0.271823 
0.12250647 0.59150684 0.25263834 
0.12667052 0.564469 0.23410857 
0.1628463 0.6038834 0.30843085 
0.1495314 0.5396588 0.23842797 
0.16446166 0.5347386 0.2509277 
0.18327947 0.5385686 0.2752868 
0.18888448 0.51332146 0.25990686 
0.18373144 0.46307614 0.21103574 
0.19242987 0.44353947 0.20401846 
0.19914061 0.41901407 0.19049586 
0.23038357 0.4528436 0.2545033 
0.2437786 0.4446993 0.262518 
0.25182107 0.42334816 0.25320968 
0.2713667 0.43071222 0.2814154 
0.28018343 0.411102 0.27446756 
0.27720934 0.36023173 0.22750056 
0.29340744 0.35909924 0.2446691 
0.29782498 0.3262641 0.22145034 
0.30816123 0.30901402 0.21822867 
0.3229736 0.3041773 0.23066792 
0.32013014 0.2487013 0.17989637 
0.34729826 0.27965814 0.23687625 
0.3558626 0.2565426 0.22663885 
0.37627965 0.26916194 0.26032844 
0.37246758 0.20720266 0.20291087 
0.40134406 0.24714616 0.2695126 
0.4014549 0.19580261 0.22559436 
0.42060477 0.20587924 0.2556837 
0.4262126 0.17101361 0.23205625 
0.44873944 0.1936232 0.27667812 
0.4591785 0.1749963 0.27239057 
0.46862146 0.15243626 0.2636136 
0.47992927 0.13624376 0.26238722 
0.5030266 0.16431732 0.31233504 
0.49451676 0.07215172 0.22374555 
0.50757605 0.06141988 0.22916467 
0.52389115 0.063880585 0.2495465 
0.5396232 0.06458476 0.26776862 
0.55027586 0.044320773 0.26231602 
0.5499983 -0.023913825 0.20347367 
0.5826239 0.051625356 0.30480793 
0.59893423 0.057041444 0.32771954 
0.59162647 -0.0474625 0.22989243 
0.61433506 -0.012404181 0.28539637 
0.6242328 -0.03818602 0.27436516 
0.6352925 -0.058869615 0.2690083 
0.06930556 0.63807607 0.2632264 
0.078331746 0.62169105 0.25936317 
0.09504395 0.6200922 0.27658057 
0.09742997 0.5904204 0.25407055 
0.11609929 0.5928862 0.27690986 
0.11861737 0.5627527 0.2541551 
0.117455356 0.5243245 0.22027647 
0.14373742 0.54296356 0.26529124 
0.14691953 0.5129595 0.24338418 
0.13280763 0.44452637 0.16966945 
0.1663357 0.4799658 0.23698379 
0.17302006 0.45634148 0.22437903 
0.19392678 0.4649604 0.2549227 
0.20201872 0.44429272 0.24638954 
0.20912024 0.4209221 0.23446351 
0.22834569 0.42645708 0.2605236 
0.22407375 0.3746828 0.21187125 
0.23655416 0.36345202 0.21621771 
0.2694992 0.40446088 0.28760698 
0.2687764 0.35983813 0.24896355 
0.27193832 0.32425296 0.22230127 
0.30060905 0.35653967 0.2815439 
0.3085603 0.3335273 0.27086607 
0.32229766 0.3262491 0.27996123 
0.31402054 0.25630507 0.21144977 
0.3325002 0.26188278 0.23671718 
0.35709694 0.28624675 0.2847136 
0.34676337 0.20640738 0.20552547 
0.3730542 0.23674598 0.26047114 
0.3612602 0.148957 0.17291863 
0.3922585 0.19539094 0.24674478 
0.41028202 0.20170291 0.27212796 
0.43023255 0.21518655 0.30573428 
0.41140547 0.09726507 0.18481307 
0.4418352 0.14659326 0.26046172 
0.4644967 0.17086741 0.3062313 
0.45522797 0.08038431 0.2192006 
0.4716038 0.08185284 0.23864532 
0.49108583 0.095726766 0.2720619 
0.4812755 -0.0033569497 0.17713599 
0.5082383 0.04004945 0.24391004 
0.5191379 0.020505356 0.2394499 
0.5392914 0.03922953 0.27772582 
0.55884486 0.05684866 0.3143977 
0.55745584 -0.015964245 0.2511086 
0.5762267 -0.0012357157 0.2844595 
0.5850301 -0.031142535 0.26888222 
0.60443634 -0.011849255 0.30681023 
0.60392725 -0.08768335 0.24193704 
0.6193745 -0.08740285 0.2593423 
0.039080784 0.59404063 0.22284392 
0.06556226 0.6103911 0.26575795 
0.09080351 0.62520164 0.30601326 
0.084814735 0.5793926 0.26100546 
0.11557213 0.60589194 0.31714353 
0.122031026 0.5842393 0.30611542 
0.10705802 0.5179761 0.23405156 
0.1189093 0.5061657 0.23722179 
0.14792122 0.53092515 0.28997615 
0.16525388 0.53154063 0.30960885 
0.14344785 0.44623053 0.21404128 
0.15915781 0.44251427 0.22825281 
0.16741809 0.4220533 0.22021048 
0.19479378 0.445604 0.27014694 
0.21377067 0.4505274 0.29520446 
0.23188679 0.4539306 0.31803817 
0.23082273 0.41096798 0.28084823 
0.22433689 0.35337642 0.22541474 
0.2621323 0.40618426 0.31137013 
0.27196392 0.3892409 0.30800983 
0.26962677 0.34014362 0.2642729 
0.296662 0.3681116 0.31753692 
0.28848234 0.30168977 0.25283268 
0.2860427 0.249094 0.20604987 
0.31147546 0.2736545 0.25468993 
0.33132365 0.28350267 0.28483695 
0.31173643 0.17844291 0.17516007 
0.36040297 0.27388683 0.3088482 
0.36522707 0.23980206 0.28559497 
0.3800255 0.23582277 0.29858068 
0.39348406 0.22787115 0.3067585 
0.42486957 0.27809948 0.3834818 
0.43278542 0.2532714 0.37139857 
0.42390978 0.17118667 0.2927962 
0.42393014 0.11673701 0.24717246 
0.43315804 0.092834026 0.23731185 
0.4518263 0.10232712 0.26585984 
0.4710356 0.1147201 0.29743558 
0.4642638 0.03054933 0.21940483 
0.51004547 0.1449841 0.36583158 
0.50079644 0.048910588 0.27509034 
0.5165299 0.049338583 0.292802 
0.5491373 0.119778864 0.38781705 
0.5302648 -0.022874504 0.24741296 
0.55625594 0.021772243 0.31350756 
0.5598158 -0.030069096 0.2739743 
0.58429986 0.0109637305 0.335377 
0.5886588 -0.038963694 0.29832947 
0.6065504 -0.026308455 0.32867175 
0.59200674 -0.17136165 0.19103028 
0.010328647 0.55317485 0.18770187 
0.04574631 0.58577955 0.25349104 
0.05883223 0.5767878 0.26036292 
0.092088595 0.60727596 0.32203224 
0.09485399 0.5785251 0.30123207 
0.09894009 0.5518501 0.28359777 
0.11787154 0.55509365 0.30700815 
0.118568495 0.52078784 0.2793402 
0.13484396 0.51870036 0.29542527 
0.15511177 0.52549195 0.3232389 
0.1175521 0.40627787 0.18332767 
0.17001542 0.48378423 0.30498716 
0.15337566 0.4078818 0.22386928 
0.15537916 0.37267107 0.19688152 
0.18306121 0.3967466 0.24713472 
0.1804979 0.3500016 0.20558909 
0.20912258 0.3775798 0.25977698 
0.2069218 0.33050877 0.21835797 
0.22081272 0.32253504 0.22695471 
0.25726032 0.37228385 0.30807936 
0.24262266 0.29139158 0.22501768 
0.2609724 0.2952813 0.24832688 
0.28853154 0.32454845 0.3027481 
0.29808283 0.30585793 0.2977132 
0.3006438 0.26731822 0.2685767 
0.32942814 0.30247408 0.3292193 
0.31653196 0.21832554 0.2453652 
0.3488274 0.26514128 0.31951416 
0.34980804 0.21969675 0.2829255 
0.3738814 0.24396208 0.32938597 
0.37132055 0.18602589 0.27856836 
0.39805517 0.22000383 0.33599114 
0.39933178 0.17263177 0.298129 
0.40676957 0.14430022 0.28279066 
0.41539508 0.1192886 0.2715038 
0.43385515 0.12787746 0.29882812 
0.44958767 0.12762521 0.31583983 
0.4557309 0.09305228 0.29391193 
0.46049863 0.052343216 0.2653931 
0.47083306 0.031413823 0.25935993 
0.48817387 0.037202533 0.2831385 
0.5036565 0.036405873 0.2994255 
0.50516754 -0.020590818 0.2538436 
0.528256 0.009855798 0.3043487 
0.5471441 0.024445612 0.33711487 
0.561467 0.020404063 0.34944326 
0.55514914 -0.075434335 0.26310185 
0.5752389 -0.054686956 0.30228633 
0.5785 -0.11128756 0.25894824 
0.61562806 -0.007128867 0.3859099 
0.025075706 0.59333724 0.26710123 
0.044254515 0.59586525 0.2900075 
0.07131583 0.6138799 0.33416504 
0.07046901 0.57858145 0.30432552 
0.09043592 0.58356714 0.3301015 
0.07354342 0.5151503 0.2556971 
0.0983959 0.52990884 0.29478735 
0.09092707 0.47858763 0.24462664 
0.08388109 0.42683178 0.19456923 
0.15579101 0.5425485 0.36749467 
0.115943834 0.41955915 0.22344258 
0.13638236 0.42602718 0.25094536 
0.15422915 0.42725548 0.27133977 
0.17484751 0.43522197 0.30026558 
0.16461854 0.3721664 0.23749256 
0.20973825 0.43809623 0.34052438 
0.21248078 0.40482315 0.31624353 
0.21916625 0.3804033 0.3034995 
0.23708126 0.38344392 0.3254528 
0.23497671 0.33627903 0.28452486 
0.26394185 0.36789185 0.34189147 
0.24765958 0.28231493 0.25409093 
0.27304816 0.30533773 0.30053437 
0.2697914 0.25168192 0.2530368 
0.30581298 0.30527171 0.33607474 
0.30525944 0.258044 0.29678032 
0.3001049 0.19620861 0.24051964 
0.31294718 0.18517335 0.24542996 
0.3500685 0.24666455 0.3361361 
0.3453741 0.1836475 0.27940717 
0.37507668 0.22538283 0.34586814 
0.38740274 0.21418974 0.35008833 
0.38478798 0.15471302 0.2985192 
0.41024873 0.18580471 0.3516518 
0.4208816 0.16874625 0.34922716 
0.40950772 0.075844735 0.26075792 
0.4145828 0.03716729 0.23458338 
0.45031586 0.10713785 0.3307284 
0.4571631 0.074916385 0.3117683 
0.47413957 0.07964867 0.334088 
0.47683027 0.03046308 0.29671392 
0.50055397 0.06179253 0.34815425 
0.50177693 0.0050760787 0.30301574 
0.5128941 -0.013273348 0.3000595 
0.53269076 0.0044017364 0.33604684 
0.5361268 -0.046722233 0.2978944 
0.5473304 -0.065662734 0.2945478 
0.5733865 -0.01809577 0.3618252 
0.57783985 -0.06730026 0.3263505 
0.59371126 -0.06439198 0.34597528 
0.01420988 0.5857245 0.2788503 
0.039275214 0.59920555 0.316795 
0.031840693 0.55165493 0.2702661 
0.040885456 0.5347619 0.26633602 
0.061332457 0.5400335 0.29265207 
0.06875189 0.519859 0.28431177 
0.08057747 0.5082977 0.28769842 
0.11033891 0.5335877 0.34027106 
0.09215618 0.4598651 0.26095557 
0.122709945 0.48757142 0.31633955 
0.12535019 0.4562997 0.29385826 
0.15517712 0.48398265 0.3484396 
0.1546562 0.44526702 0.3165208 
0.1675 0.43590987 0.32279056 
0.1684135 0.39909458 0.29395753 
0.1906576 0.411399 0.32790732 
0.18064885 0.34758887 0.2654336 
0.19887997 0.35044363 0.28740296 
0.21366422 0.34527147 0.2991545 
0.22857264 0.34061036 0.31145382 
0.24080625 0.32933292 0.31551036 
0.24657488 0.30122554 0.29896507 
0.25360748 0.27584276 0.28598934 
0.26528022 0.26244113 0.28772065 
0.2776714 0.25092185 0.2917512 
0.3013853 0.27103475 0.33361015 
0.3023155 0.22742699 0.29929367 
0.31081784 0.20455292 0.2899345 
0.31663886 0.17329784 0.27089626 
0.34332663 0.20414679 0.32465717 
0.35825798 0.2005105 0.3378113 
0.3803054 0.21945284 0.37692532 
0.3796183 0.16694808 0.333659 
0.37995416 0.11609872 0.29283646 
0.38301355 0.072682045 0.26097044 
0.40550855 0.09389868 0.3024091 
0.40583915 0.0396756 0.2588484 
0.43188688 0.074616715 0.31523362 
0.44536322 0.066108175 0.3228727 
0.44663697 0.012661859 0.28095806 
0.45296767 -0.023565434 0.25844213 
0.4855052 0.040175557 0.34515083 
0.48484856 -0.02361215 0.2927789 
0.4926482 -0.055699624 0.27519986 
0.5104297 -0.047546323 0.30097583 
0.5203809 -0.071560845 0.29225525 
0.534588 -0.07777006 0.3025445 
0.557726 -0.04413907 0.35473132 
0.5662167 -0.07481911 0.3390373 
0.58427346 -0.06193286 0.36894345 
0.003543695 0.578469 0.2910785 
0.025337448 0.5857389 0.3202224 
0.045802966 0.5910503 0.34637684 
0.033282474 0.53355247 0.28693986 
0.03394054 0.5002708 0.26099586 
0.07387886 0.5440358 0.33877882 
0.06266849 0.48667446 0.2808532 
0.07818993 0.48243055 0.29406574 
0.10122642 0.49399117 0.32797518 
0.10910531 0.47430435 0.32064393 
0.11580456 0.4517953 0.30979055 
0.132502 0.4506748 0.32676247 
0.12826055 0.4035161 0.28446397 
0.15802456 0.4316743 0.33886245 
0.15899612 0.39525843 0.3107444 
0.14331622 0.31924024 0.23309736 
0.18305781 0.37212378 0.31797087 
0.2128154 0.40316716 0.37467262 
0.2009598 0.33380306 0.30644608 
0.21088453 0.31663096 0.3033177 
0.23203516 0.32767767 0.33479747 
0.24186869 0.31032115 0.33142382 
0.2565915 0.30556 0.34336755 
0.25044137 0.24526274 0.28850654 
0.27423096 0.26459154 0.3294418 
0.271177 0.21069439 0.2830187 
0.2899588 0.21679243 0.30800107 
0.29925168 0.19626915 0.30151325 
0.3118676 0.18511312 0.30608192 
0.32841384 0.1856751 0.3242392 
0.327711 0.13424374 0.28230652 
0.3420604 0.1278895 0.29257503 
0.3512488 0.10541424 0.28441253 
0.38789248 0.17097294 0.3761196 
0.3997595 0.15815921 0.37855953 
0.39661086 0.09489516 0.32453513 
0.41092166 0.08924733 0.335328 
0.41522077 0.048835613 0.30757156 
0.44635114 0.1029375 0.3842051 
0.4390954 0.019913184 0.3099636 
0.46233404 0.047324397 0.35678074 
0.47025695 0.018143602 0.3418949 
0.47897828 -0.008738715 0.32970384 
0.4918195 -0.019942528 0.33447534 
0.5075561 -0.019364273 0.35177913 
0.5330428 0.022362182 0.41246414 
0.5177876 -0.1070788 0.2924966 
0.55263364 -0.023522811 0.39669016 
0.54846996 -0.10976038 0.32318488 
0.57053095 -0.079561636 0.37097365 
-0.01733225 0.5525925 0.27769244 
0.027953904 0.60296285 0.36566636 
0.025050333 0.5646696 0.33227128 
0.03445957 0.5490054 0.32986692 
0.06693871 0.5778707 0.38721493 
0.039310265 0.4897174 0.2880902 
0.054977484 0.4856346 0.30150038 
0.08316166 0.5071652 0.34848037 
0.08707002 0.47966823 0.33086678 
0.09803603 0.4664137 0.3320234 
0.110598244 0.45647213 0.33749795 
0.12215209 0.44437256 0.3401932 
0.122644596 0.4079135 0.3118573 
0.1624265 0.45837986 0.39406055 
0.1692074 0.4359277 0.3834914 
0.18377459 0.43105352 0.3951067 
0.18298353 0.39031723 0.36202177 
0.17439532 0.32994688 0.30511332 
0.19933017 0.34926862 0.34689346 
0.18384394 0.2698096 0.26754832 
0.2248085 0.3297875 0.35853663 
0.19655547 0.21531966 0.23791933 
0.21900406 0.22907811 0.27265495 
0.24365935 0.24956521 0.31506056 
0.2521539 0.2276344 0.3067243 
0.25900736 0.20080337 0.29276612 
0.2753546 0.19991645 0.3094283 
0.31314495 0.26041535 0.39745733 
0.30838302 0.20025244 0.34477744 
0.3281175 0.2105604 0.37389883 
0.31507823 0.123062804 0.29079 
0.34310925 0.15856972 0.3486702 
0.374111 0.20517641 0.41849202 
0.37044924 0.1435485 0.3658211 
0.37698796 0.113059774 0.34863335 
0.38149986 0.075063795 0.32335034 
0.40038773 0.08461456 0.35097313 
0.4222618 0.105328016 0.3906037 
0.42082417 0.04518517 0.34147078 
0.42296934 -0.0041382755 0.30470762 
0.4327332 -0.027084626 0.2969158 
0.46677685 0.0406614 0.38670143 
0.47904134 0.028276958 0.38992608 
0.47003886 -0.067622654 0.30445457 
0.5075912 0.019453345 0.41326776 
0.4863111 -0.13044621 0.27201134 
0.5200346 -0.0557888 0.36692765 
0.5250125 -0.100647874 0.33670717 
0.5569903 -0.028257232 0.42797494 
0.5507861 -0.12398079 0.34561512 
-0.007804401 0.58201784 0.3401043 
-0.008235318 0.54849994 0.31342202 
0.011419049 0.5517995 0.33672637 
-0.0022692373 0.4922948 0.2757314 
0.040877596 0.54072094 0.35911673 
0.04710457 0.5187903 0.34852123 
0.060187217 0.51011723 0.35552803 
0.05841493 0.47154653 0.32347763 
0.114865944 0.5513547 0.44544676 
0.08467902 0.45375615 0.33724788 
0.089925684 0.42827758 0.3228425 
0.09276723 0.3971583 0.30148742 
0.11976867 0.41810894 0.3463502 
0.13686137 0.41811594 0.36437723 
0.1375513 0.3814966 0.33644974 
0.12705329 0.31838322 0.2759946 
0.17042261 0.37901607 0.36916634 
0.16210791 0.319631 0.3139306 
0.20049031 0.37107304 0.3946525 
0.17926128 0.27861717 0.2999225 
0.2056692 0.30204192 0.3460955 
0.20345095 0.25410053 0.30624226 
0.23307917 0.28699002 0.3632168 
0.22912128 0.23328742 0.3170212 
0.23059109 0.19255759 0.28669947 
0.27852178 0.27706963 0.4033661 
0.27658585 0.22702157 0.362162 
0.28383124 0.20141226 0.3497617 
0.30124515 0.20444472 0.3704948 
0.31846547 0.20743097 0.3909877 
0.31322405 0.1440345 0.33585325 
0.31601787 0.103028305 0.3067113 
0.34317538 0.13623731 0.36133087 
0.34116504 0.07918991 0.3145713 
0.36540005 0.104720905 0.36010146 
0.36917788 0.06462693 0.33271077 
0.390013 0.080420755 0.36703694 
0.40300998 0.07055778 0.37302235 
0.41389978 0.05340296 0.37108016 
0.42457476 0.03522861 0.3681137 
0.43576652 0.018629499 0.36692467 
0.44768375 0.0044843745 0.3684209 
0.47212294 0.03764549 0.42013696 
0.4729957 -0.018489905 0.3771308 
0.47812685 -0.059783492 0.3502283 
0.49919483 -0.037942808 0.38953164 
0.51134366 -0.051510338 0.39172396 
0.5074725 -0.13305546 0.32383284 
0.51588655 -0.16465765 0.3079752 
0.5484033 -0.090207994 0.40051633 
-0.014842926 0.5811664 0.36075562 
-0.02305599 0.5336498 0.3154028 
0.008128777 0.5581869 0.36702067 
-0.00030365062 0.50909805 0.32022208 
0.027700506 0.52857506 0.36459693 
0.015188427 0.47023702 0.30637383 
0.056665856 0.5169648 0.38592958 
0.045726556 0.4604353 0.33075154 
0.06930805 0.4727256 0.36493838 
0.08205654 0.4633442 0.3710233 
0.06637946 0.39431316 0.30121607 
0.095042065 0.41800797 0.3495428 
0.10845224 0.40975186 0.3571907 
0.11353991 0.38324592 0.3420111 
0.13758989 0.39866427 0.37910798 
0.13024656 0.34353104 0.32877347 
0.12770745 0.2980398 0.29092556 
0.14750415 0.30389738 0.31617528 
0.1654555 0.30590856 0.33651823 
0.19266514 0.33085322 0.38429117 
0.19446972 0.29423112 0.35785007 
0.21049684 0.29247114 0.37326196 
0.22601773 0.28972945 0.38738462 
0.25519213 0.3227882 0.44349062 
0.26143888 0.29669026 0.42983967 
0.2531138 0.23078164 0.3701422 
0.26725596 0.224509 0.3800905 
0.2690897 0.18403754 0.35070217 
0.2850291 0.1825856 0.36626056 
0.29516944 0.16469459 0.36303312 
0.3115023 0.16480613 0.38021272 
0.3181654 0.13628167 0.36512047 
0.32601604 0.11072406 0.3535661 
0.35603246 0.1537671 0.41827682 
0.3745253 0.16225539 0.44419697 
0.34605223 0.019190406 0.3037277 
0.3777038 0.0697277 0.375947 
0.38949537 0.055744454 0.3774706 
0.41114357 0.07556955 0.41546282 
0.40714356 0.006563126 0.35789543 
0.42941475 0.029348182 0.39882934 
0.43224728 -0.017613333 0.36546585 
0.45400447 0.004664762 0.4054697 
0.46807596 -0.00097531045 0.41583338 
0.47202387 -0.045907725 0.38520682 
0.47627032 -0.09115885 0.35464618 
0.5024843 -0.04828675 0.41524518 
0.51946825 -0.04147038 0.43829283 
0.50692534 -0.15996882 0.3334993 
0.51494694 -0.19361453 0.31586716 
-0.050486363 0.52894896 0.31221431 
0.01262373 0.61076015 0.44034058 
0.009269546 0.5725923 0.407668 
0.042672876 0.6024884 0.46523196 
0.014347401 0.51613945 0.3697721 
0.030414667 0.5132331 0.38424128 
0.02357054 0.46562332 0.3407226 
0.035088908 0.4534414 0.3433728 
0.07526021 0.49915844 0.42006648 
0.059697423 0.43216488 0.35266694 
0.06074771 0.39805347 0.32767206 
0.074718356 0.39057997 0.3364705 
0.093450546 0.39346126 0.35813415 
0.10444847 0.3798651 0.35916212 
0.13937126 0.41933984 0.42562968 
0.13279556 0.36673358 0.37856892 
0.15172997 0.37129793 0.40172973 
0.14402208 0.31421533 0.35006955 
0.16771546 0.330057 0.38679838 
0.16322464 0.2788387 0.34296492 
0.19729537 0.32079175 0.41044253 
0.19536074 0.27477247 0.37324047 
0.19061722 0.22042097 0.32674843 
0.21201779 0.23200612 0.35784024 
0.24961805 0.28689122 0.43887407 
0.25814348 0.26644352 0.43209392 
0.2651395 0.24149145 0.42028028 
0.2993041 0.2911846 0.49377447 
0.28028792 0.19329096 0.39915717 
0.28724438 0.16668867 0.38604045 
0.30028018 0.15725967 0.39237228 
0.321089 0.171006 0.42450204 
0.3165351 0.108821295 0.37221673 
0.32180002 0.07500572 0.35182658 
0.36197093 0.15016243 0.4510332 
0.34647566 0.050090816 0.3584081 
0.36434725 0.055653412 0.38122818 
0.3898779 0.08742483 0.43204758 
0.37557825 -0.01460812 0.3391647 
0.40694186 0.038180497 0.41211623 
0.4057743 -0.021653103 0.36514682 
0.43612656 0.03047413 0.43654191 
0.44971272 0.023356281 0.4452129 
0.4453575 -0.051266905 0.38362193 
0.46338633 -0.042396236 0.4091351 
0.46904773 -0.08134668 0.38523003 
0.48783967 -0.06868136 0.41443786 
0.48721105 -0.13487807 0.3631623 
0.5080821 -0.113074556 0.40151826 
0.51804996 -0.13670583 0.39380205 
-0.051098045 0.5396739 0.34852517 
-0.043707892 0.5204293 0.34159765 
-0.016653828 0.5370418 0.3820561 
-0.032675203 0.4741767 0.31800884 
0.0064285714 0.5140327 0.3884654 
-0.008767283 0.4511359 0.32524544 
0.011151898 0.45510948 0.34879118 
0.038681448 0.47459605 0.39191276 
0.0011241359 0.36420375 0.2697265 
0.045177862 0.41727468 0.35527807 
0.046902623 0.38461253 0.3323646 
0.079139195 0.41548717 0.38894954 
0.09890262 0.4210069 0.41350353 
0.08605203 0.356205 0.35126194 
0.09912914 0.3468822 0.35769987 
0.11397274 0.3415673 0.3689894 
0.1200438 0.3164438 0.35625717 
0.1396893 0.32228225 0.3809305 
0.16403253 0.33972383 0.4192202 
0.16982764 0.31372535 0.40554193 
0.16745208 0.26734188 0.36802688 
0.20589344 0.32070273 0.44800982 
0.18893856 0.23691916 0.36718574 
0.17889218 0.16830626 0.30495495 
0.22113179 0.23375303 0.39799163 
0.22929192 0.21164586 0.3896941 
0.23807718 0.19082667 0.38301492 
0.24368547 0.1609465 0.3662095 
0.26818565 0.183101 0.40822393 
0.28029624 0.1712577 0.41175967 
0.27077866 0.096825905 0.3456752 
0.29820442 0.12886712 0.39818087 
0.30055127 0.087274164 0.36915737 
0.31382206 0.077917896 0.37576976 
0.33949324 0.10724274 0.4244125 
0.3588751 0.118153736 0.4526487 
0.37171802 0.108754 0.45878696 
0.37359026 0.063221395 0.42629567 
0.39131734 0.06964728 0.4494347 
0.39989185 0.045363586 0.43991908 
0.37944147 -0.08107982 0.32323998 
0.41534373 -0.010927314 0.41329876 
0.42898068 -0.01858886 0.4215699 
0.42128417 -0.10555266 0.3478894 
0.44403225 -0.079962246 0.39069447 
0.4603545 -0.07774277 0.40920478 
0.46530658 -0.12008505 0.38230145 
0.48154348 -0.118006535 0.40061718 
0.5010383 -0.101801954 0.43297175 
0.50474364 -0.15138379 0.39930966 
-0.058312498 0.53848433 0.3686796 
-0.038643252 0.54149336 0.39106438 
-0.047705095 0.49242455 0.34511638 
-0.019704271 0.51091105 0.38759732 
0.00055522757 0.5157032 0.41191894 
0.022286901 0.5237652 0.44019133 
-0.0006954958 0.44572756 0.35834292 
0.05220505 0.5149318 0.46421787 
0.017979873 0.41255024 0.35266668 
0.027696785 0.39645985 0.35058916 
0.07207519 0.45157942 0.4372137 
0.08572714 0.4444901 0.44589147 
0.07932534 0.394917 0.40228978 
0.07776123 0.35455033 0.37052092 
0.086570546 0.33597395 0.36565638 
0.11564506 0.36226258 0.41506734 
0.11222699 0.3162471 0.37717897 
0.12316685 0.30208907 0.3777975 
0.14729269 0.31862155 0.41485122 
0.14339869 0.26952866 0.37417573 
0.18029326 0.31760293 0.44787362 
0.16103312 0.22986394 0.36258557 
0.18070802 0.23666616 0.38781092 
0.24517663 0.35770515 0.54426664 
0.20046173 0.20153336 0.3817772 
0.2319716 0.24039789 0.4430798 
0.22043703 0.16605712 0.37571365 
0.2260242 0.13600516 0.35897434 
0.24101217 0.13127117 0.37078008 
0.26124066 0.14151037 0.39914075 
0.2823204 0.15495409 0.43076774 
0.26499057 0.057246927 0.34000614 
0.2947765 0.096305944 0.39968926 
0.3281582 0.14810796 0.47257683 
0.33795413 0.12956637 0.46874833 
0.34903705 0.11477094 0.469037 
0.33144426 0.008038939 0.37126157 
0.3680014 0.07426486 0.45817947 
0.3588473 -0.0085377665 0.3869264 
0.37429687 -0.010724655 0.40110826 
0.4037114 0.035770692 0.46596864 
0.40450296 -0.016450448 0.427752 
0.4112748 -0.048822243 0.41049176 
0.41991693 -0.07520204 0.3996243 
0.43748915 -0.06868874 0.42248112 
0.45884803 -0.04689682 0.46063277 
0.45576164 -0.11946621 0.40323913 
0.4715205 -0.119274445 0.41951525 
0.4816189 -0.141745 0.41306013 
0.5040119 -0.113262065 0.45727095 
-0.06874178 0.53154707 0.381138 
-0.038285088 0.55381894 0.42854488 
-0.057036627 0.48765674 0.36060807 
-0.042902358 0.4804754 0.36966702 
-0.0303723 0.47039604 0.3749546 
0.010668361 0.5144569 0.4492153 
-0.006030758 0.44890374 0.38381425 
0.0071221357 0.44007364 0.39065775 
0.014933848 0.42069498 0.38427997 
0.028109636 0.41186112 0.39114395 
0.05299399 0.42704153 0.42764863 
0.05959112 0.40502238 0.4180857 
0.05554163 0.36018547 0.38084528 
0.065411426 0.34410664 0.37899694 
0.09465689 0.37002847 0.4278694 
0.08786855 0.31744984 0.382126 
0.10874714 0.32567227 0.40941924 
0.13378717 0.34399953 0.44840702 
0.15096352 0.34503093 0.46662503 
0.13311021 0.26390028 0.3885426 
0.16112933 0.29031613 0.43653372 
0.16244632 0.25295877 0.41027296 
0.18389247 0.2645308 0.44061765 
0.18979502 0.23774019 0.42682368 
0.19738367 0.21472043 0.4175292 
0.20085014 0.18055551 0.39581144 
0.21729136 0.17993464 0.41206172 
0.21528699 0.12999615 0.3731307 
0.23538809 0.13926362 0.40040582 
0.25160852 0.13842689 0.41627222 
0.26085126 0.11814694 0.41068292 
0.27133107 0.10110425 0.40874243 
0.26870453 0.04528537 0.36483476 
0.30607274 0.107632816 0.44887307 
0.31044382 0.07202441 0.42700824 
0.3230526 0.061094765 0.43174765 
0.33704677 0.054554284 0.4411377 
0.35368782 0.05672644 0.4596545 
0.35948953 0.023743346 0.44118312 
0.35603085 -0.041167457 0.38971275 
0.39705038 0.043940242 0.49427688 
0.38843012 -0.040304724 0.42327702 
0.40174422 -0.049438782 0.43005976 
0.42116135 -0.036319114 0.4594858 
0.43882734 -0.028687123 0.48307788 
0.4500746 -0.044575978 0.48276976 
0.44965476 -0.1057977 0.4371132 
0.4530935 -0.15394862 0.40503454 
0.4684022 -0.15579522 0.41922835 
0.4843888 -0.15442318 0.43648887 
-0.07483786 0.53220344 0.4034791 
-0.07010707 0.5086128 0.3910231 
-0.06819396 0.47955093 0.37172854 
-0.04125237 0.49583492 0.41080314 
-0.052297667 0.44224572 0.36052155 
-0.011234929 0.4857476 0.43372133 
0.009452981 0.49182716 0.45903385 
0.0036550653 0.44690785 0.4203783 
0.031671353 0.46767944 0.46381465 
0.015739338 0.40136498 0.39930907 
0.0315338 0.3978689 0.41269112 
0.03377015 0.36660162 0.39211202 
0.043473184 0.35035235 0.39003426 
0.06415177 0.35729495 0.41596773 
0.0935716 0.38368416 0.46492282 
0.08766145 0.3336662 0.42243034 
0.08862839 0.29773962 0.39716762 
0.13635403 0.3669461 0.49586257 
0.1219214 0.29563674 0.42922184 
0.14415626 0.3081267 0.46077684 
0.14066853 0.26023254 0.42227945 
0.16162694 0.27017283 0.45068455 
0.18473966 0.28608552 0.48562497 
0.18579689 0.24782644 0.45874986 
0.20873186 0.26416615 0.49382284 
0.17737742 0.14130697 0.37246093 
0.17147359 0.08142742 0.3227726 
0.20657425 0.12934534 0.39318228 
0.22313942 0.12896976 0.40962094 
0.23118192 0.105413735 0.4005315 
0.25351864 0.12161202 0.43489757 
0.26938587 0.12026182 0.44992027 
0.2857718 0.12076624 0.46682078 
0.29712462 0.106752485 0.46804023 
0.29429638 0.049781438 0.42357904 
0.3082943 0.042874027 0.43265718 
0.33288422 0.06932015 0.47678086 
0.32874465 0.0054295594 0.42594317 
0.3406611 -0.00823057 0.4279895 
0.3625906 0.011228675 0.4643263 
0.35596818 -0.06469452 0.40219584 
0.37807655 -0.044084165 0.43955374 
0.37871227 -0.097749405 0.40100184 
0.4109068 -0.03985365 0.47576657 
0.41162202 -0.09443954 0.43662244 
0.42403933 -0.107078336 0.43992004 
0.43848798 -0.112023644 0.4508859 
0.44497278 -0.1477589 0.43133 
0.46782318 -0.1193598 0.47512496 
0.47494823 -0.15324408 0.4575669 
-0.08764647 0.5210433 0.4103409 
-0.049894676 0.5559894 0.4733843 
-0.05794063 0.5099266 0.43206957 
-0.058901295 0.47574836 0.40643194 
-0.023131585 0.50883204 0.46614537 
-0.060586646 0.40574414 0.35420337 
-0.016105467 0.45599332 0.4350354 
-0.019366445 0.415769 0.40272862 
-0.0033880998 0.41240194 0.41630223 
-0.018236138 0.34787858 0.35484642 
0.040966656 0.43138582 0.4744352 
0.016916396 0.34695417 0.38938913 
0.07140378 0.42384616 0.49947882 
0.06494724 0.374547 0.45741957 
0.062137287 0.33187792 0.42379954 
0.08871895 0.3523057 0.4651728 
0.07691282 0.28868675 0.40741685 
0.097928755 0.29723558 0.4346391 
0.11688656 0.30169454 0.45684716 
0.12369066 0.2784199 0.44685897 
0.12738153 0.247395 0.42815706 
0.12598176 0.20350784 0.3950701 
0.14427806 0.20652923 0.4155777 
0.17916176 0.2510895 0.48268938 
0.15875998 0.15830065 0.39526412 
0.19340648 0.2036727 0.4627242 
0.16953647 0.098635115 0.36298192 
0.19801572 0.12896574 0.41340536 
0.21144629 0.12020041 0.4205297 
0.23788024 0.14712875 0.46644816 
0.22029221 0.05269645 0.38065478 
0.25623018 0.10711563 0.45594016 
0.26642284 0.089555934 0.45347205 
0.26675832 0.04279425 0.42004794 
0.29228044 0.0700778 0.4653095 
0.29962474 0.043391466 0.45339927 
0.31394053 0.037750863 0.46366623 
0.32182044 0.011968198 0.45294487 
0.32497147 -0.0296035 0.4260879 
0.34553474 -0.0151989125 0.4570844 
0.3824998 0.05505972 0.544834 
0.359109 -0.0773538 0.4258074 
0.37072352 -0.092830926 0.42626694 
0.39366314 -0.068303175 0.46695223 
0.40576285 -0.08156211 0.4694993 
0.43009466 -0.049730837 0.51685196 
0.42682213 -0.12019456 0.4627019 
0.42397353 -0.19153294 0.40834498 
0.4326534 -0.22011206 0.396406 
0.45228234 -0.20545535 0.4266487 
-0.110238284 0.49290705 0.39542976 
-0.07046951 0.53089476 0.46208835 
-0.061220013 0.5157013 0.460443 
-0.051343385 0.5015072 0.46013454 
-0.041913737 0.48638126 0.45871648 
-0.048126176 0.4419192 0.42080674 
-0.0056203334 0.4887366 0.49648872 
-0.013007124 0.4413559 0.4553282 
-0.012451957 0.40837005 0.43233874 
-0.01950806 0.3596533 0.39055353 
0.013877673 0.39103353 0.44614893 
0.021997413 0.37216684 0.4407586 
0.053597406 0.40164655 0.49322182 
0.056715984 0.3725029 0.47552365 
0.05091841 0.32376665 0.434976 
0.07199578 0.33206883 0.46186116 
0.07814053 0.30811277 0.45087463 
0.10040785 0.31975934 0.4813299 
0.091303594 0.26092046 0.43028393 
0.11688967 0.28051814 0.46971408 
0.10612124 0.21594906 0.41292363 
0.10884872 0.18176132 0.39123666 
0.14083225 0.21755864 0.44859007 
0.16099755 0.22584029 0.47455356 
0.192779 0.26376256 0.53322256 
0.18201931 0.19528073 0.47364834 
0.18311678 0.1554719 0.44632873 
0.20841286 0.17820433 0.48770773 
0.20912002 0.13643801 0.45860296 
0.21247733 0.10080451 0.43651047 
0.22996488 0.10334453 0.4557134 
0.2468469 0.104653895 0.4734359 
0.25428164 0.079376526 0.46278918 
0.25673237 0.0390807 0.43646774 
0.27404112 0.041751675 0.45558628 
0.27890182 0.007370929 0.4358829 
0.3093415 0.050702583 0.4970782 
0.3259439 0.052757453 0.51505464 
0.33015093 0.015792957 0.49285728 
0.34193233 0.002434434 0.4950393 
0.3576757 0.002092895 0.5104512 
0.34634924 -0.089143544 0.43407375 
0.36769956 -0.07115123 0.46814606 
0.37114435 -0.11479448 0.4404241 
0.39518726 -0.08606473 0.4848371 
0.41449624 -0.07299297 0.51336765 
0.42383236 -0.096071124 0.5061813 
0.4287041 -0.13662316 0.4820845 
0.4364212 -0.16737407 0.46781212 
0.4491274 -0.17918573 0.4720178 
-0.09117205 0.53701735 0.4731051 
-0.08515435 0.5163021 0.46443185 
-0.10150894 0.45549428 0.40538526 
-0.056712113 0.50358516 0.48354113 
-0.04409507 0.49446562 0.4895642 
-0.070451 0.41302574 0.40608743 
-0.034298755 0.44725996 0.46593273 
-0.05997093 0.3646609 0.38231325 
-0.028197203 0.39133325 0.43250075 
0.012762972 0.43718478 0.5052889 
0.012399667 0.40220204 0.48025003 
0.015421392 0.3733461 0.46287563 
0.019876389 0.34688804 0.44860804 
0.026163764 0.32377702 0.43851084 
0.058543645 0.35559145 0.49292448 
0.070249714 0.34421754 0.49645764 
0.09427717 0.3597397 0.53113085 
0.06448109 0.25664526 0.4289804 
0.064007655 0.21673726 0.40035805 
0.10457227 0.26984128 0.47787225 
0.12227924 0.27182817 0.4967561 
0.08742134 0.15006539 0.37643772 
0.11939785 0.18512535 0.43274286 
0.15059714 0.2197813 0.4879956 
0.14860956 0.17367566 0.45350593 
0.1734883 0.19408178 0.49246517 
0.19595763 0.2093526 0.5254227 
0.20770197 0.1975704 0.5287056 
0.19978355 0.13370073 0.47582793 
0.22769484 0.16447614 0.5250968 
0.23193637 0.1318679 0.50627947 
0.22294208 0.061637063 0.4478518 
0.25050914 0.09294081 0.4971535 
0.23795837 0.0100486055 0.426282 
0.2705368 0.05704247 0.4916007 
0.288455 0.062323667 0.51301724 
0.30218118 0.055440307 0.52171296 
0.2912264 -0.027736815 0.45221615 
0.31563774 -0.0020341536 0.49445066 
0.32588407 -0.020471564 0.49155936 
0.3134607 -0.113406844 0.4137283 
0.34189215 -0.07316878 0.4701865 
0.35017756 -0.099450245 0.45982522 
0.36418006 -0.10650351 0.46867388 
0.35253435 -0.204072 0.38834193 
0.3917138 -0.12181502 0.4850558 
0.40430278 -0.13359259 0.48917592 
0.42114723 -0.12942019 0.5087501 
0.43934375 -0.1194316 0.53376245 
0.44911972 -0.14150733 0.52783996 
-0.08380414 0.56048137 0.5236361 
-0.07973633 0.5368587 0.5111493 
-0.09521213 0.47826746 0.455118 
-0.08415921 0.46592608 0.45734578 
-0.05378321 0.48871133 0.5030121 
-0.059127692 0.44648805 0.46832696 
-0.02602144 0.4753732 0.5209237 
-0.029937405 0.43504575 0.48896092 
-0.0030359973 0.45325884 0.5280327 
-0.029877482 0.36718455 0.44169372 
-0.0056971116 0.380154 0.4744413 
-0.0023941973 0.35177135 0.4578851 
-0.0048652813 0.3110558 0.42706805 
0.022019556 0.33034703 0.46687546 
-0.0053682867 0.23624542 0.37440267 
0.05054082 0.3176968 0.4860112 
0.040763836 0.2593956 0.43576843 
0.055488534 0.25362808 0.44618005 
0.08139824 0.27304763 0.4851211 
0.078035325 0.22687933 0.44962713 
0.106366076 0.2527577 0.49544573 
0.12014836 0.24568193 0.5040212 
0.11346635 0.18997417 0.45862094 
0.13664272 0.20508514 0.49187782 
0.14011012 0.17256534 0.47259766 
0.16331571 0.18866624 0.50657356 
0.17608021 0.17912784 0.51243395 
0.18527493 0.16041067 0.5083938 
0.20894931 0.1794372 0.54486954 
0.19475205 0.09837675 0.47442168 
0.22515 0.13597958 0.53044325 
0.20551975 0.03712185 0.44225794 
0.24663933 0.10583511 0.5304855 
0.24862473 0.065507196 0.50430727 
0.25175846 0.027478695 0.48085827 
0.26674262 0.023552554 0.49280843 
0.28200564 0.020718826 0.50579375 
0.29356304 0.006814922 0.5074264 
0.30344498 -0.012429884 0.503692 
0.3070514 -0.051939234 0.47967356 
0.33354518 -0.018370258 0.5290549 
0.33324566 -0.07155146 0.49167302 
0.34856975 -0.07379491 0.5051299 
0.35258895 -0.11445623 0.48071277 
0.3916779 -0.03369565 0.57535154 
0.38266516 -0.12075373 0.5058031 
0.380493 -0.18599077 0.45817792 
0.40257853 -0.16344705 0.4955491 
0.4163766 -0.17088534 0.5038872 
0.44650772 -0.11506618 0.57235116 
-0.107956104 0.529652 0.50529736 
-0.11421241 0.48784733 0.47038913 
-0.11072692 0.462317 0.45618138 
-0.08929894 0.46840525 0.4812337 
-0.10427564 0.409032 0.42572674 
-0.08496951 0.41124022 0.44603917 
-0.060600262 0.4232498 0.47803617 
-0.03358985 0.44090077 0.5164927 
-0.023025151 0.42783767 0.51776963 
-0.038519636 0.36401504 0.45869148 
-0.019272635 0.36718822 0.4796115 
-0.0068961405 0.3570109 0.48464116 
0.0136011755 0.36334568 0.5089577 
0.011105315 0.32277212 0.47855803 
0.021859901 0.30903056 0.47955206 
0.04664597 0.32500196 0.51468587 
0.04995629 0.2954699 0.49754903 
0.043690447 0.24439578 0.45624134 
0.073705465 0.2727245 0.50498325 
0.082150355 0.25357652 0.5000022 
0.07611415 0.20097207 0.45786303 
0.11476844 0.25109252 0.530036 
0.10296869 0.18382962 0.47218212 
0.11320735 0.16770734 0.4710328 
0.1177599 0.13753857 0.45466602 
0.13699791 0.14316559 0.47726893 
0.15903684 0.15638924 0.5078348 
0.17220266 0.14767379 0.5146405 
0.18498817 0.1380357 0.52044 
0.18448995 0.09327305 0.48909673 
0.20455405 0.1027105 0.5151305 
0.21064149 0.074582554 0.50166446 
0.2309935 0.08557115 0.5290477 
0.22343561 0.018282589 0.4753047 
0.23710231 0.010174696 0.48301667 
0.2761937 0.0766993 0.5669237 
0.25948888 -0.02048886 0.48366612 
0.26702723 -0.047151785 0.47262216 
0.29203793 -0.020361517 0.5154329 
0.28671637 -0.08767554 0.46384886 
0.32667655 -0.011889699 0.55498594 
0.33273426 -0.043583576 0.5390327 
0.3375129 -0.08031975 0.5183585 
0.33239165 -0.15160935 0.46422875 
0.35278565 -0.13703573 0.49412435 
0.35683912 -0.17903337 0.46911725 
0.37692383 -0.16464552 0.49858376 
0.38429236 -0.19583638 0.48425305 
0.4073015 -0.16935657 0.5249017 
0.4067362 -0.23128167 0.48166174 
-0.030183375 0.3595039 0.49106187 
-0.033942223 0.31721666 0.45861298 
-0.019489834 0.31078103 0.46819377 
-0.008531131 0.297312 0.4696055 
0.0023486356 0.283597 0.47077328 
0.014683311 0.27286378 0.47537896 
0.0459551 0.30270272 0.5259325 
0.029786306 0.23059264 0.46116853 
0.050856885 0.23883125 0.48714456 
0.08147376 0.26905277 0.537326 
0.10258666 0.27890357 0.56444144 
0.09181415 0.21568501 0.51095134 
0.106426165 0.2104116 0.52147835 
0.12523904 0.21532623 0.5430075 
0.11739536 0.15616429 0.49511203 
0.13690937 0.16277954 0.5184776 
0.13289237 0.11111391 0.47938848 
0.15443337 0.12306837 0.50835127 
0.1438111 0.052702107 0.45013556 
0.18255793 0.10998082 0.5266114 
0.18459375 0.07155288 0.50239223 
0.17477696 3.4616536e-05 0.44416985 
0.20276964 0.030802583 0.4921877 
0.21799564 0.027169714 0.50442594 
0.23621674 0.032340202 0.52555764 
0.25433737 0.03777895 0.5467749 
0.27465808 0.050292153 0.57493925 
0.25062105 -0.06978473 0.46988487 
0.28794146 -0.0059257247 0.54946643 
0.29184067 -0.043524027 0.52761334 
0.2947452 -0.08525442 0.5019832 
0.3146926 -0.07303437 0.529587 
0.31847718 -0.11315921 0.5059014 
0.34567842 -0.075833544 0.557623 
0.3524402 -0.1065301 0.5432394 
0.35707125 -0.14541256 0.5212184 
0.35416192 -0.21216571 0.47291842 
0.39324155 -0.12902541 0.56733906 
0.3914507 -0.19310637 0.5219409 
0.41252622 -0.17314915 0.55590725 
-0.1157374 -0.37553036 -0.3633744 
-0.101885624 -0.34977683 -0.34637225 
-0.06960122 -0.47490734 -0.31359902 
-0.11407143 -0.39213324 -0.34443623 
-0.14010376 -0.36014974 -0.35985756 
-0.058336373 -0.40647134 -0.30471134 
-0.06410529 -0.42825896 -0.3036121 
-0.075107805 -0.43531603 -0.30685925 
-0.08057319 -0.45720407 -0.30562472 
-0.14430343 -0.3238406 -0.35142374 
-0.12538856 -0.41075873 -0.33049822 
-0.15948199 -0.35831332 -0.3520715 
-0.05636261 -0.4245039 -0.28590244 
-0.118989825 -0.28953588 -0.33076277 
-0.09118178 -0.40376008 -0.3026927 
-0.13601428 -0.3204631 -0.33280674 
-0.13964482 -0.3484204 -0.33003566 
-0.15029189 -0.35745326 -0.33286157 
-0.12722935 -0.4533155 -0.30941194 
-0.18736055 -0.3349964 -0.35079256 
-0.08205895 -0.2869133 -0.30074 
-0.07091363 -0.43404216 -0.27499604 
-0.092043765 -0.41359204 -0.2862319 
-0.13133629 -0.345309 -0.31152317 
-0.12206578 -0.40682706 -0.298956 
-0.17083065 -0.31593174 -0.3312384 
-0.16749904 -0.3612449 -0.32334915 
-0.16464454 -0.40433437 -0.31596974 
-0.06727388 -0.3023167 -0.27693433 
-0.08491362 -0.2920735 -0.2852428 
-0.055411864 -0.4142551 -0.25657848 
-0.07328389 -0.43970287 -0.2599597 
-0.10279423 -0.3967106 -0.27749437 
-0.09738165 -0.4477408 -0.26821268 
-0.11170302 -0.4458069 -0.2740609 
-0.13506064 -0.42061928 -0.2866968 
-0.15009 -0.41747358 -0.29299104 
-0.15969297 -0.4282235 -0.29521886 
-0.20040658 -0.361171 -0.32049835 
-0.06890888 -0.31093323 -0.26064044 
-0.077080406 -0.32738274 -0.26157394 
-0.091225006 -0.3268568 -0.2671289 
-0.11972773 -0.28695202 -0.28359902 
-0.0981595 -0.42120633 -0.25700158 
-0.1041224 -0.44161022 -0.25654176 
-0.14651465 -0.36641994 -0.28318936 
-0.16136552 -0.3642837 -0.28923684 
-0.15789238 -0.4090006 -0.28181642 
-0.2050009 -0.3254271 -0.3114311 
-0.2102675 -0.34801674 -0.31040445 
-0.2743714 -0.22566946 -0.35187453 
-0.089054905 -0.22573285 -0.26389292 
-0.09300079 -0.2554208 -0.26152435 
-0.085583456 -0.31640646 -0.25066715 
-0.07609483 -0.3816453 -0.23845293 
-0.10090118 -0.35132596 -0.2520021 
-0.14866091 -0.25983638 -0.2824292 
-0.119898945 -0.375083 -0.25622064 
-0.12847166 -0.38911623 -0.25769 
-0.15991868 -0.3433829 -0.27582282 
-0.15439948 -0.39389163 -0.2670716 
-0.17834102 -0.36849302 -0.27964193 
-0.18060264 -0.39816955 -0.27662477 
-0.24491233 -0.2735863 -0.3177779 
-0.23675638 -0.32938996 -0.30731487 
-0.3426153 -0.10837282 -0.37714612 
-0.105989866 -0.19068006 -0.25872704 
-0.097330905 -0.25649878 -0.24708363 
-0.110072516 -0.2607382 -0.25144443 
-0.1148961 -0.2868716 -0.24999623 
-0.11724944 -0.3191789 -0.2468187 
-0.123554245 -0.34012574 -0.24659504 
-0.21715689 -0.12859061 -0.30929184 
-0.13686754 -0.37891784 -0.24680999 
-0.14730498 -0.38795114 -0.24967964 
-0.1698279 -0.3659381 -0.26111618 
-0.2391717 -0.22622621 -0.30541608 
-0.21939233 -0.31256083 -0.28690714 
-0.24707125 -0.27985662 -0.30167583 
-0.26352534 -0.27540007 -0.308562 
-0.2815166 -0.26745614 -0.3164795 
-0.09626223 -0.19082811 -0.23871814 
-0.10420249 -0.20956978 -0.2394768 
-0.09841993 -0.26671806 -0.23031436 
-0.10344462 -0.29232982 -0.22912203 
-0.1293866 -0.2598177 -0.24300136 
-0.103793755 -0.36825654 -0.22002184 
